ply
format ascii 1.0
element vertex 1332
property float x
property float y
property float z
property uchar red
property uchar green
property uchar blue
end_header
-1.30929 5.24897 7.59688 184 154 149
2.26156 4.19497 7.60806 72 83 83
1.37215 3.72634 7.86462 136 145 123
0.69822 5.70703 7.97748 108 116 112
1.79092 4.26134 7.72802 135 114 105
0.912908 2.892 7.9908 113 123 111
-0.918543 5.06539 7.83636 165 137 132
0.83737 3.26412 7.93595 154 138 129
1.09302 4.68803 7.81294 159 143 127
0.419839 5.29193 8.05521 170 157 158
2.2228 3.45344 7.52458 102 110 99
1.19075 3.82997 7.9038 118 130 118
1.14583 6.22777 7.84453 163 159 143
1.32603 5.6003 7.64012 155 151 142
-1.12523 4.35179 7.58334 139 136 128
2.35464 3.09737 7.45486 138 137 121
1.90519 3.36251 7.66745 89 96 91
0.897329 4.12699 7.92094 109 119 104
1.75155 5.60535 7.45099 100 107 105
0.945133 3.20525 7.93554 105 116 107
1.94967 4.47473 7.58565 150 119 111
-1.07784 4.69903 7.64441 181 182 163
-1.16058 3.60198 7.33003 201 186 175
1.66779 3.21733 7.75233 87 98 94
0.983159 5.99018 7.8636 146 149 139
0.983159 5.99018 7.8636 146 149 139
0.639879 5.58994 8.00071 98 105 108
0.639879 5.58994 8.00071 98 105 108
1.66848 4.26874 7.74499 102 104 96
-0.729401 3.71044 7.95877 164 136 129
0.972265 2.82155 7.99662 102 113 107
-0.719186 4.02641 8.01206 166 152 147
1.42533 4.88827 7.6168 100 102 98
2.07135 4.62366 7.48068 133 112 103
2.16123 4.82363 7.37597 141 121 114
-1.21888 4.2354 7.46741 191 168 155
-1.17124 4.33958 7.54042 166 145 137
1.11601 4.7405 7.80839 174 147 133
1.16478 4.83569 7.79828 107 109 107
0.629756 3.97427 8.03262 89 98 102
0.97806 6.29492 7.93741 212 182 169
0.97806 6.29492 7.93741 212 182 169
1.79097 3.17361 7.6926 124 135 119
1.37512 4.44261 7.68161 206 172 156
1.44085 2.91902 7.78544 83 97 97
1.95807 3.32338 7.62455 96 110 101
1.95734 3.32355 7.62414 83 97 90
-0.502427 5.50835 8.09074 171 166 160
0.942906 6.27033 7.94379 151 137 134
0.930896 4.966 7.88419 148 119 116
0.483991 4.04951 8.04543 121 129 112
-0.710197 2.17403 7.71196 125 122 115
1.77455 3.3687 7.71901 119 119 108
1.77455 3.3687 7.71901 119 119 108
1.05815 5.86124 7.90887 167 154 145
1.53389 4.06518 7.81199 134 139 118
1.53389 4.06518 7.81199 134 139 118
-0.663036 5.64043 8.00718 182 165 155
1.50713 5.47768 7.62727 82 85 94
1.73177 2.64077 7.75871 79 90 97
0.493832 3.90298 8.0393 190 182 182
-1.22783 4.2057 7.44965 198 177 165
0.564511 4.03214 8.0405 147 148 144
0.347053 3.78834 8.03525 129 139 121
1.78834 2.55177 7.80295 135 133 119
1.78834 2.55177 7.80295 135 133 119
0.986281 3.97587 7.93422 125 138 119
0.986281 3.97587 7.93422 125 138 119
-0.538577 2.86288 7.99734 122 127 118
1.1258 4.22247 7.88877 177 161 144
2.15087 5.12858 7.39288 124 105 102
0.690108 4.05871 8.05566 130 137 126
1.70358 3.29358 7.7465 112 126 106
1.77528 4.57303 7.55326 157 140 119
1.68677 4.30586 7.73897 99 106 95
1.86103 3.29811 7.67855 83 93 95
2.13604 4.85342 7.40289 111 119 105
1.49415 4.54844 7.59632 87 99 98
1.85774 5.62724 7.46544 144 136 132
-0.915539 3.20082 7.52451 128 126 122
0.802136 3.28397 7.93655 166 158 144
-1.68468 3.8733 6.90833 132 137 126
-1.68468 3.8733 6.90833 132 137 126
-0.833303 4.43865 7.91644 179 170 160
-1.07325 5.6116 7.72051 200 174 160
1.05663 3.30643 7.91513 100 110 102
1.40303 5.1826 7.65774 90 92 94
2.44236 4.06227 7.51593 80 93 89
0.393793 4.83511 8.04903 139 149 119
0.591815 4.74692 8.00278 152 128 123
1.05257 5.51915 7.84931 98 99 105
0.862962 3.62564 7.9237 128 144 114
1.4524 5.11393 7.67096 105 109 105
0.962329 6.13173 7.87663 164 151 147
0.530515 3.69802 8.02119 111 117 117
-0.982572 5.85293 7.71268 146 141 137
1.58029 3.20635 7.77806 85 95 93
1.04826 4.26006 7.83773 195 178 159
1.06264 4.37389 7.80403 83 92 93
0.469483 3.28653 8.01799 162 159 156
1.1686 6.17287 7.78183 160 148 147
2.13773 3.48549 7.57326 83 94 92
0.999025 4.49372 7.85252 161 146 129
-0.901617 4.4416 7.84516 178 166 152
1.09583 4.64397 7.82544 113 119 112
1.2322 4.98158 7.76731 94 101 95
1.1969 3.48095 7.89486 168 146 134
1.1969 3.48095 7.89486 168 146 134
-1.32944 3.02772 7.03088 166 155 144
-1.32944 3.02772 7.03088 166 155 144
1.60668 3.74763 7.80306 131 128 114
1.62239 4.34477 7.73897 130 129 108
1.62239 4.34477 7.73897 130 129 108
1.8736 4.5229 7.5822 76 86 87
1.8736 4.5229 7.5822 76 86 87
2.08114 4.90923 7.39547 108 122 106
1.46406 3.74326 7.80831 132 141 120
1.68743 2.48881 7.86084 88 100 101
-1.70522 4.03752 6.92519 162 147 139
-1.14365 4.19021 7.49563 120 128 117
-0.739366 5.15643 8.06887 168 147 140
1.48895 4.72427 7.58469 83 91 89
1.21266 3.81838 7.89324 150 142 128
1.21266 3.81838 7.89324 150 142 128
-0.58743 4.91344 8.07152 145 148 135
1.18342 5.77777 7.8493 165 157 144
1.04339 4.40297 7.82918 137 128 114
-0.666543 4.80014 8.03402 130 132 123
-1.49943 5.16774 7.39075 173 162 152
-1.09402 4.13055 7.49619 202 186 170
-1.09402 4.13055 7.49619 202 186 170
0.424821 6.41272 8.1331 179 169 170
0.424821 6.41272 8.1331 179 169 170
-0.75893 2.68816 7.72814 217 183 167
0.882803 3.24447 7.93431 156 142 129
2.18654 4.90013 7.37372 65 74 82
0.982758 5.31104 7.84738 169 149 136
1.3662 3.9301 7.85382 134 126 120
-0.692488 2.42059 7.83696 142 121 118
1.33265 5.23416 7.72523 95 104 100
-0.73072 2.20457 7.71144 116 117 109
1.7904 4.31685 7.73198 109 116 104
0.476494 6.3851 8.12231 177 167 166
0.425321 4.11791 8.03969 147 137 139
-1.28544 3.57215 7.25075 171 154 142
2.15327 4.94384 7.35709 72 81 89
1.17124 4.93985 7.79824 101 112 103
-1.25254 3.61334 7.29243 122 127 115
1.04302 4.36153 7.82171 188 171 158
1.04302 4.36153 7.82171 188 171 158
-1.11457 5.51278 7.67071 202 176 159
-1.11457 5.51278 7.67071 202 176 159
-1.41607 3.6621 7.19327 128 130 120
0.439955 3.64453 8.04022 108 117 109
2.17202 4.13268 7.62465 84 96 89
0.890326 3.29432 7.93814 119 130 119
-0.791933 5.71012 7.87492 167 152 144
1.8343 5.25393 7.46222 118 128 111
-0.929375 5.09056 7.84207 213 189 178
1.34043 3.01386 7.8302 85 95 100
0.624002 3.64891 7.91847 91 100 100
0.473931 5.77507 8.06247 157 158 141
-1.13215 3.31768 7.26076 181 156 142
0.614632 4.34307 7.96221 160 148 132
0.990388 5.21873 7.80979 90 96 102
1.65032 4.36348 7.74308 108 110 104
2.22662 4.40413 7.59646 133 114 106
2.22662 4.40413 7.59646 133 114 106
2.22702 4.40402 7.59719 140 119 111
1.49713 5.55109 7.62813 143 142 134
1.49713 5.55109 7.62813 143 142 134
1.50636 5.2313 7.53873 74 84 93
1.50517 5.23129 7.5381 67 77 86
1.08528 4.01931 7.8704 84 94 97
1.08704 4.01889 7.88599 74 85 88
1.75426 3.2328 7.69939 88 99 97
1.75685 3.23052 7.71408 82 91 90
0.334527 4.23661 8.04335 117 123 114
0.47674 3.78689 8.02646 168 164 162
0.47674 3.78689 8.02646 168 164 162
1.63158 5.09889 7.52205 70 79 86
1.24872 3.47869 7.89535 97 107 99
-0.436839 2.07088 7.85518 118 128 110
-0.998746 4.36281 7.79983 150 151 140
1.01431 3.46054 7.91786 104 118 108
1.50026 5.33001 7.63589 81 91 94
1.50026 5.33001 7.63589 81 91 94
-1.18623 5.00842 7.65148 165 142 137
1.18457 2.99983 7.8864 127 131 113
1.18457 2.99983 7.8864 127 131 113
1.33225 4.03378 7.85541 89 100 96
0.583803 6.1501 8.03148 172 161 154
2.15567 4.86511 7.39333 73 75 83
-1.43263 4.04436 7.20965 156 147 136
1.04125 3.38621 7.91186 100 112 104
1.04125 3.38621 7.91186 100 112 104
1.78934 4.53701 7.58478 87 96 93
1.56439 4.02228 7.81979 68 81 85
0.494422 4.13216 8.04739 109 113 109
2.11952 4.03263 7.61986 89 102 98
2.11952 4.03263 7.61986 89 102 98
2.38035 3.92181 7.50696 84 97 90
-0.649026 3.35305 7.98277 185 165 158
1.26382 4.83823 7.70869 133 146 119
1.99497 4.25396 7.64698 65 75 80
1.2498 2.90025 7.87016 101 114 111
-0.423384 2.23308 7.93373 121 132 123
-0.59156 5.40379 8.08875 169 158 157
-1.34532 3.19019 7.04476 211 179 163
-0.949922 4.20922 7.70026 147 150 137
-0.949922 4.20922 7.70026 147 150 137
-0.471865 2.18019 7.86171 150 144 128
1.3622 4.97684 7.67702 128 138 119
-1.04432 5.07316 7.75055 211 190 179
-1.57359 3.52359 7.00425 149 146 134
0.639156 3.26471 7.96773 115 123 118
-1.43621 4.86617 7.42439 191 166 154
0.467003 4.37407 8.06971 132 137 134
0.618096 3.22747 8.00764 127 130 117
0.438677 5.55972 8.09159 126 132 125
0.834116 6.1413 7.97415 149 139 138
0.834116 6.1413 7.97415 149 139 138
0.974233 4.60568 7.87361 108 125 114
-0.117828 2.25669 7.96848 203 181 173
2.09003 4.99359 7.40643 81 91 95
-1.5486 5.36227 7.41856 228 209 201
-1.07592 4.4425 7.64154 163 146 139
-1.59629 3.91778 7.01684 127 131 117
1.38267 5.31259 7.73107 120 116 107
2.03279 2.79342 7.60456 94 109 103
2.06935 5.09101 7.39682 81 89 87
1.22863 5.60194 7.76897 146 140 135
1.60293 3.30444 7.81206 104 117 110
1.79877 4.56946 7.55322 90 99 95
-0.991439 4.1205 7.58803 172 163 154
0.045929 2.19641 7.97046 192 180 173
-1.10252 4.17907 7.51039 119 127 114
0.720442 5.26048 7.99967 143 137 128
-0.854407 5.47317 7.89154 141 147 132
1.54018 3.87153 7.80585 120 130 109
1.54018 3.87153 7.80585 120 130 109
1.78846 5.07021 7.44616 144 121 112
1.78846 5.07021 7.44616 144 121 112
1.78846 5.07021 7.44616 144 121 112
-0.778199 5.69143 7.90331 227 191 172
1.73705 4.28889 7.72916 99 103 95
1.73705 4.28889 7.72916 99 103 95
-0.632806 3.32385 7.99339 162 145 141
1.39826 4.89749 7.62299 177 150 135
-0.516879 2.52296 7.97496 163 145 137
0.907578 6.12251 7.91845 130 126 125
-1.19426 4.34513 7.53133 206 180 167
0.449053 4.98758 8.07169 117 126 117
0.449053 4.98758 8.07169 117 126 117
1.77901 4.60722 7.55456 177 141 123
1.15616 4.92123 7.79668 165 137 124
1.15258 6.16652 7.81153 105 104 111
0.436427 3.46538 8.03124 159 158 156
0.436427 3.46538 8.03124 159 158 156
0.694094 3.78972 7.94815 109 117 112
1.28158 5.84601 7.78248 102 103 104
-1.10567 4.20827 7.53114 175 174 157
-0.352381 2.34961 7.9793 157 157 155
-0.350813 2.24317 7.97818 177 159 146
-0.351957 2.2443 7.97442 183 166 154
1.26634 5.49076 7.77952 160 141 136
2.23947 3.71124 7.54907 121 127 113
2.23947 3.71124 7.54907 121 127 113
1.18574 5.15276 7.79221 93 102 101
1.18574 5.15276 7.79221 93 102 101
-0.493825 2.48209 7.99117 135 133 123
1.55969 4.64175 7.5964 101 110 104
2.09977 4.01934 7.61773 113 117 102
0.584021 4.95026 8.01325 147 133 122
0.584021 4.95026 8.01325 147 133 122
1.65377 5.91895 7.57323 120 123 116
0.979734 4.93174 7.86649 110 103 109
1.22402 2.98034 7.87143 121 125 110
-1.59431 3.52427 6.9757 171 167 154
1.17422 2.95441 7.88818 109 121 113
1.44333 6.14034 7.67045 156 146 142
1.14969 2.89069 7.89541 135 141 125
1.4434 4.92763 7.61309 99 107 99
1.28445 3.48726 7.89234 99 108 100
-0.986129 4.59519 7.72967 140 143 139
1.77888 4.47667 7.5951 119 129 112
2.05653 3.28077 7.58478 75 84 86
1.33737 3.47225 7.87063 90 101 101
2.18563 4.29932 7.62174 61 74 79
2.32386 3.65668 7.52947 69 82 90
2.32386 3.65668 7.52947 69 82 90
0.335598 4.16034 8.04945 188 186 185
-1.08416 3.68455 7.52069 251 234 216
0.757689 6.22975 8.04589 202 173 163
0.873056 3.19021 7.92997 194 178 168
0.00648514 2.1852 7.96714 216 194 185
1.14026 6.02334 7.82977 163 159 150
-1.35226 3.65368 7.2438 223 202 191
-1.35226 3.65368 7.2438 223 202 191
-0.948159 2.55537 7.24543 123 132 121
-0.948159 2.55537 7.24543 123 132 121
1.7586 4.61318 7.55768 170 139 121
1.9067 3.50218 7.67952 83 95 91
2.13938 3.50869 7.56097 113 117 105
0.493589 4.95361 8.04041 112 121 113
1.47951 2.86946 7.75982 120 134 109
1.69845 4.21465 7.75234 99 104 95
1.69821 4.21459 7.75023 103 108 98
0.795301 4.3338 7.89202 114 120 109
0.381604 3.68357 8.0297 155 154 152
2.17881 3.58445 7.5981 110 102 100
-0.723602 4.12933 8.03541 151 138 134
-1.35331 3.06622 7.01918 156 134 127
1.24537 5.15136 7.78002 114 109 106
2.27703 4.59924 7.4684 74 84 82
1.66862 3.46663 7.78326 128 128 115
1.66862 3.46663 7.78326 128 128 115
-0.719248 2.89583 7.70324 162 139 137
1.06747 4.60064 7.83416 98 110 102
1.2991 3.91078 7.86205 87 96 94
1.24308 4.1136 7.8396 128 135 122
-1.22957 4.77043 7.53779 160 154 141
-1.22957 4.77043 7.53779 160 154 141
1.08099 4.86939 7.83319 102 106 103
-1.06585 5.05551 7.75784 203 176 164
-1.19989 5.4131 7.62862 130 132 128
1.18407 3.10899 7.88364 105 116 110
-1.37524 3.85666 7.20742 117 125 113
1.02452 5.74282 7.90584 113 117 112
-1.6014 4.70977 7.21461 132 135 119
0.434835 4.94389 8.06761 115 124 112
1.97243 4.20315 7.70702 62 73 83
1.83372 3.45137 7.69944 80 89 91
0.850205 3.70516 7.99889 131 142 124
-0.442712 2.15205 7.87471 138 143 122
1.88507 3.35041 7.65461 124 123 108
0.451902 6.43437 8.11705 175 165 164
-0.864331 2.4348 7.43444 154 129 123
1.65752 4.31085 7.72221 136 125 111
-1.57504 4.91864 7.33288 177 162 155
-1.15399 5.54352 7.61855 174 176 151
-1.15399 5.54352 7.61855 174 176 151
-1.65754 3.60487 7.02798 134 129 125
-0.825771 5.07977 7.9793 179 153 145
2.08154 4.70246 7.46779 78 89 86
1.20752 3.20009 7.88445 103 110 105
1.22516 5.97239 7.81782 161 157 145
-0.751329 4.90773 7.99168 131 134 122
-0.751329 4.90773 7.99168 131 134 122
1.28507 3.19659 7.87181 96 101 101
-1.5573 3.7931 7.0287 147 149 132
1.75112 5.7913 7.52607 149 140 137
-0.530335 5.52403 8.08312 133 141 134
-1.48048 3.63535 7.15077 190 169 159
0.512254 4.06826 8.0657 151 160 139
1.58953 4.26902 7.77164 132 136 117
0.773517 2.92266 8.0043 108 115 109
2.41754 4.92998 7.30564 112 121 109
0.176063 2.52898 7.97839 173 162 156
1.66771 2.81503 7.71535 78 88 91
-1.45114 4.31291 7.27556 191 165 155
1.04624 5.94385 7.89578 153 142 135
-0.763302 2.64097 7.69573 227 198 182
1.45497 5.21804 7.58156 70 78 86
2.09281 3.97684 7.61312 122 124 109
0.563383 3.2799 8.02184 159 160 160
0.916375 6.14336 7.91637 171 158 154
2.20412 4.39066 7.62052 99 111 99
2.20412 4.39066 7.62052 99 111 99
1.68597 3.34146 7.76191 113 125 106
0.980035 3.25742 7.92491 106 116 107
-0.859206 4.52544 7.86731 173 166 151
1.20985 3.09568 7.88799 144 149 124
1.2096 3.09556 7.88955 130 135 112
1.91363 3.13091 7.59956 116 126 113
0.819813 6.31683 8.00831 151 140 139
2.48634 4.52684 7.46048 159 132 121
1.08761 4.91286 7.84364 92 96 96
0.504031 3.41521 8.01689 185 185 186
-0.541631 6.3107 8.1106 187 151 146
1.75883 5.36313 7.49351 114 129 109
-1.15384 3.17396 7.20867 210 181 167
-1.00575 3.70329 7.59648 237 211 194
2.41882 4.50443 7.46145 116 121 117
2.02196 3.68821 7.63095 113 120 104
1.8538 3.37277 7.68361 87 95 91
1.8538 3.37277 7.68361 87 95 91
1.85321 3.37286 7.68216 90 97 92
-0.766287 5.71405 7.92081 168 148 144
1.92838 4.89335 7.37119 69 78 86
1.92693 4.89284 7.36465 62 71 80
-1.13451 4.00156 7.45851 152 160 134
1.5678 3.31708 7.80484 102 117 106
1.90407 5.72409 7.41157 78 82 91
0.775465 3.40677 7.90593 99 105 105
-1.50132 3.28275 6.95324 153 151 136
-1.50132 3.28275 6.95324 153 151 136
1.23058 4.81191 7.7159 145 132 116
2.58083 4.47033 7.42729 79 90 91
0.34349 4.8047 8.05953 111 123 112
1.16498 3.41873 7.9001 157 139 130
1.64668 2.80268 7.70049 135 138 122
0.820938 5.40093 7.88448 113 124 110
1.203 3.31222 7.89564 116 124 116
1.203 3.31222 7.89564 116 124 116
-1.39097 4.75252 7.4035 132 133 123
1.11035 4.16413 7.90496 93 104 101
1.50121 4.51072 7.58765 85 95 96
0.77284 6.09173 8.01358 193 164 155
0.77284 6.09173 8.01358 193 164 155
0.571305 3.14966 8.01281 109 120 111
0.571305 3.14966 8.01281 109 120 111
2.05288 4.48459 7.5903 89 102 95
-1.52131 3.65471 7.11094 146 140 131
1.45863 5.44022 7.62969 92 93 102
1.45863 5.44022 7.62969 92 93 102
0.488142 5.405 8.09219 162 163 162
1.48827 4.32626 7.75435 126 126 110
0.862099 6.05487 7.96768 179 164 155
0.109718 2.16652 7.96675 222 207 201
0.790918 3.02989 7.99019 85 96 98
1.48749 5.25059 7.5433 118 124 111
0.813001 3.25619 7.93566 106 118 110
1.36051 5.05523 7.62587 74 81 87
0.349893 5.73471 8.08087 143 145 137
-1.11128 3.66785 7.51958 208 172 157
0.586024 3.19127 8.01863 131 137 130
-0.679392 3.70834 8.03157 166 144 139
1.94983 4.51496 7.56679 88 99 92
-1.5273 5.37759 7.41889 163 141 138
-1.07385 4.4675 7.63458 224 205 194
1.62629 4.23505 7.74741 146 134 119
1.62642 4.2351 7.74938 131 120 107
1.62642 4.2351 7.74938 131 120 107
1.66696 3.43198 7.77033 117 121 108
1.66591 3.43257 7.76141 133 135 121
-0.663359 2.36091 7.84101 189 161 154
-0.662737 2.35992 7.84514 181 152 144
-0.683925 2.14293 7.7367 190 164 152
-0.683907 2.14288 7.73695 193 166 154
0.585393 4.04841 8.04235 197 187 184
1.75933 4.11951 7.74966 75 85 89
0.881164 3.9061 7.96717 100 108 108
0.882099 3.90587 7.97035 94 103 101
1.01366 4.47483 7.84406 105 110 104
1.48859 3.76226 7.85092 87 98 96
2.01857 4.78774 7.47262 109 117 102
1.51606 3.51921 7.85014 130 124 112
1.03027 3.2878 7.9228 106 115 105
1.52306 5.42616 7.5985 138 144 122
1.69291 5.93076 7.53623 145 138 135
1.69291 5.93076 7.53623 145 138 135
-0.627552 2.82565 7.9885 210 184 170
1.78962 3.14794 7.70874 101 115 107
1.97426 3.67889 7.66563 111 124 111
1.21852 3.46905 7.89597 117 124 111
1.89897 2.67032 7.70473 74 89 93
1.89897 2.67032 7.70473 74 89 93
1.22619 5.46712 7.76581 147 145 134
-1.14656 5.53005 7.63667 139 144 132
1.58385 5.21864 7.51527 108 116 104
-0.666023 2.14799 7.74687 147 122 117
-1.06834 4.49984 7.64653 193 174 160
-1.31691 5.22372 7.58328 165 157 143
-1.13496 3.96351 7.42142 177 158 143
1.5428 3.3194 7.80785 116 132 107
1.54106 3.32072 7.79752 127 143 118
-1.14123 4.34028 7.55549 202 178 163
1.23947 3.51322 7.89162 98 108 99
1.23947 3.51322 7.89162 98 108 99
-1.1711 3.30061 7.23833 200 174 159
1.96287 2.73261 7.6383 94 108 102
1.5812 3.35366 7.80645 104 118 108
1.06645 6.29979 7.90505 179 162 151
1.06645 6.29979 7.90505 179 162 151
0.35655 4.18774 7.99886 187 185 183
1.44996 3.65654 7.86011 109 121 110
0.499739 4.21971 8.04619 197 181 174
1.60374 3.52718 7.83075 88 100 94
-1.61041 4.89523 7.30188 173 164 154
1.22565 5.13249 7.77266 160 126 117
1.2277 5.1344 7.79073 172 137 128
1.78412 4.28243 7.72928 102 103 95
2.02961 3.07624 7.54228 74 84 91
2.15343 3.52889 7.56209 88 100 93
0.503831 5.36362 8.08409 151 151 148
0.702042 6.34274 8.07323 177 160 152
1.43313 4.78996 7.61202 98 104 99
-1.17255 5.55547 7.59342 181 179 158
-1.17255 5.55547 7.59342 181 179 158
1.8778 2.72694 7.64048 111 129 106
1.7601 3.29608 7.72719 83 92 92
0.818542 3.4491 7.9264 154 132 128
-0.959155 4.87808 7.7786 181 177 159
-0.26983 2.40374 7.97434 196 178 172
-1.58373 4.6636 7.2085 131 132 127
1.31182 5.80494 7.74272 167 165 153
-0.763158 5.08889 8.03196 224 204 191
-1.52158 5.31578 7.43614 227 205 196
1.36725 2.60597 7.91867 141 134 129
-1.21735 4.27047 7.47864 193 169 156
-0.947599 3.67825 7.64059 155 135 130
-0.727945 4.44078 8.02175 154 139 135
0.89381 5.96088 7.9527 160 156 145
0.89381 5.96088 7.9527 160 156 145
0.504512 6.45821 8.12631 171 163 162
1.08552 5.41022 7.79859 193 159 143
1.89227 2.53647 7.75295 122 128 108
1.98041 4.66105 7.49912 82 87 86
1.66788 3.50935 7.78152 130 127 115
-1.22611 3.0797 7.14293 203 174 159
-1.22528 3.08015 7.13836 207 178 163
-1.62319 4.66714 7.17931 167 150 142
1.93796 5.0744 7.3891 153 140 134
2.35153 4.73745 7.38636 146 123 112
0.556946 3.86285 8.03643 181 179 174
0.468404 5.03311 8.06692 114 124 115
-1.67984 4.51876 7.06159 155 148 138
1.47652 5.54197 7.62857 95 100 104
1.47652 5.54197 7.62857 95 100 104
1.68951 4.2812 7.73667 140 139 115
1.68951 4.2812 7.73667 140 139 115
0.320653 2.18732 7.96903 222 199 189
-0.636978 2.45158 7.87428 157 134 129
-0.638783 2.45252 7.87078 172 152 148
1.53308 4.13076 7.79482 104 118 109
1.01974 4.66504 7.84012 101 114 103
2.58585 4.50003 7.44526 90 90 91
0.624324 5.03195 8.00222 108 119 114
2.36624 3.98623 7.52168 68 83 82
-0.83715 4.40459 7.90477 165 156 146
-1.10375 3.07396 7.27804 147 126 121
-1.1035 3.07421 7.27555 151 129 124
1.43588 3.23647 7.84485 129 132 115
1.52839 4.6745 7.59586 169 139 124
1.46185 4.68733 7.60649 174 147 129
1.23225 3.58325 7.8928 99 106 98
-1.41831 3.64026 7.19872 202 181 171
1.06413 4.854 7.82982 224 196 180
-1.08357 3.90387 7.43428 188 172 156
0.931585 4.93865 7.89307 165 135 131
0.798448 6.31413 8.01629 194 170 159
2.39404 4.51511 7.44787 89 100 96
2.39404 4.51511 7.44787 89 100 96
1.52169 4.69347 7.58064 112 112 108
2.09685 3.77748 7.59888 97 108 100
0.993196 4.70641 7.857 151 133 122
0.993196 4.70641 7.857 151 133 122
1.75157 3.50768 7.75946 76 88 88
1.75172 3.50793 7.75936 78 90 90
1.28806 4.34383 7.77189 155 136 122
1.56189 4.34221 7.72463 140 143 120
-0.966089 4.72631 7.72068 178 169 152
-1.0565 4.69006 7.65544 146 149 132
0.754147 2.87341 7.99873 116 122 116
-1.05103 4.48853 7.64734 169 146 138
-0.743845 5.5393 7.92477 135 139 130
-0.691972 2.27114 7.79091 138 124 119
-0.691972 2.27114 7.79091 138 124 119
1.26116 5.67648 7.79564 158 143 142
1.7714 4.62703 7.55533 92 101 94
0.973476 5.64068 7.86777 121 122 113
0.636662 3.15966 8.01537 119 126 111
0.715828 4.04938 8.04445 198 193 190
0.715828 4.04938 8.04445 198 193 190
1.00261 4.93696 7.89634 165 142 141
0.523365 3.34501 8.01532 161 161 160
-0.580275 6.11401 8.09161 179 155 149
0.701465 5.6788 7.98234 120 123 118
-1.42865 3.509 7.09245 166 159 144
2.08427 3.76181 7.59755 126 131 112
0.975757 4.69366 7.86996 113 126 115
-1.1552 4.24443 7.50389 151 149 135
1.21279 3.07631 7.87601 105 115 106
1.21279 3.07631 7.87601 105 115 106
1.63548 5.47734 7.57094 89 95 96
0.463475 3.59804 8.02599 169 168 169
1.33447 2.69398 7.94205 163 145 137
-0.800029 5.88941 7.87993 152 142 137
0.440728 4.41708 8.05578 182 183 183
0.59188 3.75476 8.01701 111 121 120
0.515436 5.04957 8.05726 117 129 120
0.945842 4.21216 7.90499 195 171 154
1.46629 4.16777 7.8077 126 139 119
1.71462 5.31076 7.47688 118 129 101
0.987637 4.14823 7.94043 84 92 95
1.32372 6.15238 7.74609 178 157 150
-1.37947 3.30465 7.0038 138 141 129
1.3942 5.1036 7.63788 103 113 106
1.56212 2.58519 7.89283 106 119 111
1.12804 3.35878 7.90714 149 137 128
-0.718364 5.24556 8.06417 220 202 191
-1.42355 3.49146 7.08969 115 122 109
1.34689 6.12146 7.73005 189 165 156
1.02432 5.54191 7.84259 223 192 184
0.368095 4.8384 8.06329 111 124 113
0.455794 5.46611 8.09899 169 168 169
1.79361 3.4111 7.71211 86 97 93
2.28675 3.68514 7.5694 93 104 95
0.947739 4.32595 7.87015 110 107 107
1.0519 3.35902 7.9131 111 125 115
-0.734895 5.23329 8.06554 144 135 132
1.4077 4.18526 7.80589 133 142 119
2.15921 3.33096 7.53625 83 96 90
2.09804 3.95714 7.61425 90 102 97
2.09804 3.95714 7.61425 90 102 97
1.46553 3.56451 7.85778 97 106 97
1.46553 3.56451 7.85778 97 106 97
-0.971245 5.46221 7.79652 173 170 156
1.74282 2.78222 7.70759 83 91 94
-0.839311 3.74214 7.80086 151 139 132
-0.580917 6.22665 8.08181 200 171 159
1.77973 3.51973 7.72052 133 124 112
1.77973 3.51973 7.72052 133 124 112
-1.26395 3.65348 7.29971 150 143 137
1.58179 3.74266 7.79919 102 117 105
-0.750457 5.92542 7.92378 132 133 127
-0.815564 5.44807 7.8994 128 130 121
-0.815564 5.44807 7.8994 128 130 121
0.816155 3.37705 7.91907 94 99 102
2.03528 2.7679 7.60546 113 132 111
2.07543 3.41046 7.56699 78 88 87
2.17721 3.2736 7.51312 92 102 96
1.2761 2.98891 7.86079 124 134 110
-0.94287 4.97054 7.79816 203 175 158
-0.94287 4.97054 7.79816 203 175 158
-0.650257 5.9518 8.07009 144 143 136
2.38947 3.96878 7.49537 70 80 84
1.82679 3.29908 7.70624 80 86 89
-1.17288 5.22093 7.68624 176 150 140
-1.19449 5.52389 7.61569 137 143 134
1.24484 3.7668 7.91489 116 124 113
1.7276 4.62506 7.56007 164 129 118
1.136 4.11841 7.89799 125 138 118
0.928585 5.98913 7.93292 150 140 134
-1.25526 3.72778 7.30446 109 114 111
1.38553 4.77344 7.62364 102 115 103
0.989477 4.2404 7.89132 108 118 107
-0.625136 2.54102 7.91358 224 196 181
0.920488 2.86552 8.00379 166 164 165
0.866923 3.26552 7.93503 106 115 105
1.45924 5.58346 7.62926 114 115 111
1.45924 5.58346 7.62926 114 115 111
0.667479 4.76618 7.99353 140 143 129
2.10523 3.74254 7.59619 87 98 90
2.10523 3.74254 7.59619 87 98 90
1.13787 5.76521 7.83628 120 120 120
-0.734421 5.5155 7.93717 136 141 131
1.88706 3.29263 7.65381 131 131 118
1.44894 4.23257 7.79151 77 87 88
-0.704971 2.71165 7.88333 184 160 148
1.22273 6.29783 7.82399 190 165 155
1.01322 5.72043 7.89037 186 159 148
-1.06524 5.62891 7.69219 150 155 140
-0.869543 2.45873 7.40777 222 184 166
1.78573 3.26728 7.71185 125 121 109
1.97058 3.121 7.60128 110 127 111
1.23996 3.07005 7.87005 135 137 122
-1.16584 3.40599 7.27291 143 139 126
0.615396 3.56189 7.98513 180 156 141
2.06309 3.68188 7.60266 119 127 114
1.17789 3.03232 7.89039 112 122 115
-0.963241 4.74628 7.72223 125 135 123
1.48383 3.49477 7.85087 141 139 120
-1.11832 5.85547 7.59551 151 138 135
0.478123 3.46894 8.02314 107 117 108
-1.47315 4.70691 7.32383 174 171 158
1.62533 4.3749 7.71823 129 116 104
2.22336 4.38773 7.61204 85 97 91
0.459701 3.32861 8.0155 162 162 161
1.80561 3.24701 7.70529 122 116 106
1.95468 4.15469 7.73511 115 129 111
-0.362587 2.29048 7.95427 123 136 124
1.66165 4.64801 7.57403 153 128 114
1.68559 5.90581 7.54139 119 121 118
-0.631101 2.63819 7.94344 169 143 135
0.977247 3.57147 7.92058 89 97 95
-1.1967 3.67918 7.3631 212 194 182
2.14005 3.31608 7.53729 128 119 109
1.58054 2.7248 7.80191 88 97 101
2.16523 3.56403 7.6061 71 81 85
0.856815 4.55408 7.89193 94 102 100
2.41097 3.7854 7.51147 108 115 98
0.739894 5.52883 7.95988 92 101 105
1.00025 4.37672 7.84389 121 123 110
1.22519 5.68045 7.82023 181 169 163
-0.690679 2.10589 7.72155 192 165 152
1.6068 4.39618 7.70163 89 97 97
-0.338793 6.43095 8.1118 214 194 187
1.24841 3.20713 7.87812 136 119 119
1.8213 3.49938 7.70083 114 115 104
1.45859 4.96478 7.61357 103 109 106
0.395422 4.86007 8.06606 120 133 122
0.779277 5.679 7.95124 134 140 126
0.922163 3.72621 7.96115 137 151 122
0.502936 2.0472 7.96362 113 119 112
1.65373 3.52156 7.78857 84 92 91
1.01673 4.18531 7.90907 85 92 93
0.616359 6.48998 8.12001 216 199 187
0.895397 3.4352 7.90852 118 122 115
-1.13296 3.28468 7.25339 204 180 164
1.21448 6.12668 7.80624 177 157 147
1.81246 3.31155 7.70157 118 113 105
0.981379 4.3619 7.84782 176 160 150
-0.523764 6.313 8.12477 214 187 174
1.44299 5.60062 7.62949 162 159 149
-1.00705 5.24503 7.81549 189 166 156
1.12199 5.15869 7.80433 97 104 101
0.917099 5.09133 7.85224 72 82 92
2.52394 4.68682 7.33644 68 79 84
2.52394 4.68682 7.33644 68 79 84
-0.231587 2.07452 7.88463 116 122 113
-0.582751 2.252 7.85546 153 135 125
1.37851 5.19352 7.69349 110 103 102
1.4171 3.59899 7.86995 111 123 111
-0.636803 5.97468 8.0608 152 145 142
0.418659 4.85532 8.04192 140 152 128
1.8512 5.78668 7.45876 141 133 132
0.531303 2.15276 7.9733 210 192 181
1.33639 2.98474 7.83364 128 133 121
-1.35988 3.29849 7.07072 161 156 143
-1.36056 3.29892 7.07027 159 153 140
0.201874 6.29673 8.11114 186 174 173
0.235037 2.17516 7.96723 229 189 170
1.99447 4.75844 7.47194 121 120 105
0.627632 3.54822 7.98509 123 132 112
1.34457 5.75688 7.72959 150 144 138
2.18959 4.93825 7.32438 98 114 101
-1.57348 4.01077 7.0727 158 147 136
-1.07623 4.06327 7.48965 171 165 148
1.97115 4.64937 7.51602 136 122 108
1.84112 3.07735 7.68001 109 120 107
1.70506 3.47893 7.76767 93 105 103
1.16699 5.84809 7.86646 173 164 153
1.26094 5.97477 7.76505 125 125 121
-0.697696 2.96117 7.73953 192 175 169
1.83363 5.39328 7.46833 83 94 93
0.156582 2.02408 7.93693 180 147 140
2.44323 3.84885 7.49394 115 120 102
-1.11957 5.10975 7.70283 148 148 138
-1.15995 4.09319 7.43791 171 154 142
0.573203 3.74689 8.00813 143 145 137
1.26045 3.4384 7.88947 142 148 128
1.42564 3.7106 7.85143 133 138 122
1.7247 4.64356 7.56056 95 98 93
1.71137 5.53939 7.52767 136 126 124
1.1672 3.01123 7.897 98 108 102
2.48275 4.30334 7.51656 96 107 99
0.962938 4.28161 7.87394 178 152 133
-1.31188 5.00309 7.57447 210 186 175
-0.786868 5.14807 8.01207 142 136 128
1.66825 3.26325 7.75966 125 140 118
-1.11618 3.42703 7.31017 128 130 120
-1.19811 4.14267 7.43254 133 141 122
1.03018 4.38075 7.83227 103 108 99
1.83108 2.86691 7.671 87 95 98
-0.789584 5.0492 8.02198 168 144 138
2.10508 3.61016 7.657 107 121 109
2.10223 4.79609 7.38681 87 95 95
1.10189 4.10949 7.92336 139 128 116
2.12943 4.78639 7.42363 91 104 98
-1.03552 5.70406 7.71008 226 202 188
-1.03552 5.70406 7.71008 226 202 188
0.383685 5.2715 8.08306 184 171 171
0.448635 5.60565 8.09384 167 154 140
0.448635 5.60565 8.09384 167 154 140
1.75129 2.32809 7.85887 93 105 101
0.580079 4.06824 8.04427 139 146 137
-1.52695 3.63427 7.11772 203 181 172
-1.52628 3.63455 7.11477 215 195 184
1.3968 5.04748 7.66143 94 104 99
0.819848 4.24736 7.89358 190 169 160
0.819848 4.24736 7.89358 190 169 160
1.6438 3.2543 7.76509 91 105 96
0.675568 4.38234 7.9356 139 121 113
0.569424 6.40639 8.11789 198 182 175
0.430409 3.74005 8.03128 120 122 117
-0.705085 2.93346 7.73698 183 162 153
1.67235 3.48395 7.77678 85 93 93
-0.411123 2.11451 7.8713 136 144 123
0.770805 5.71785 7.96328 120 131 117
1.85963 4.12581 7.69772 102 117 103
-1.14521 3.60459 7.34945 132 130 121
0.831141 4.10898 7.92487 128 137 122
-1.14147 3.24577 7.23266 167 142 132
-1.14185 3.24569 7.23355 171 147 137
1.19979 3.06304 7.88909 138 146 122
1.19979 3.06304 7.88909 138 146 122
-0.530256 5.61051 8.08773 147 148 143
0.618411 2.01952 7.96291 108 116 111
1.01116 4.02252 7.95151 127 140 121
-1.13733 3.67323 7.38458 161 153 143
1.63147 5.1282 7.5365 76 86 92
1.41406 4.98093 7.64658 170 152 135
1.50037 2.63371 7.90404 134 146 127
-0.530209 2.42535 7.93796 204 182 168
-0.768389 5.23412 8.04961 150 146 135
1.65323 3.55322 7.79471 140 130 121
1.78366 4.83577 7.47266 109 123 103
1.80906 2.41997 7.84133 126 134 121
0.890016 5.93124 7.92587 160 158 146
1.24176 4.53032 7.74849 143 142 115
1.24176 4.53032 7.74849 143 142 115
2.13698 4.81236 7.40165 80 92 89
-0.632801 2.24514 7.81149 110 114 107
-0.633805 2.24458 7.81477 113 117 112
-1.52787 3.51989 7.03547 124 130 116
0.865797 3.74976 7.93884 90 99 101
-1.06212 4.04556 7.47274 133 140 130
-1.06139 4.04564 7.46976 121 128 119
0.483323 3.59082 8.01872 122 128 119
-0.266893 2.05692 7.87533 175 144 133
1.38237 3.85796 7.83986 107 112 106
1.54612 4.73565 7.58464 93 105 98
2.06725 4.68216 7.44818 114 127 102
1.99423 2.74236 7.60352 88 100 99
1.42682 3.15634 7.78268 79 90 96
-0.9425 5.51985 7.80286 192 171 159
1.9477 2.30673 7.76796 90 97 97
2.54925 4.23344 7.48939 100 113 102
2.03459 3.06246 7.51084 106 118 110
1.62925 4.68695 7.58448 98 106 100
0.890891 5.29359 7.87774 86 98 100
0.890891 5.29359 7.87774 86 98 100
-0.659114 3.92025 8.03425 132 133 126
0.475081 4.89697 8.03577 110 120 110
-0.379689 2.16441 7.91239 107 115 107
-0.974503 5.63626 7.74853 190 175 162
0.498593 5.74144 8.05778 151 152 132
1.30698 3.52538 7.91081 122 127 115
-1.2041 3.08544 7.16397 198 169 154
-0.794215 2.41142 7.65685 176 151 145
1.4433 3.58743 7.86274 100 111 101
1.80296 5.05148 7.44977 91 82 89
0.372115 3.49965 8.01844 175 173 171
-0.706357 4.60032 8.00088 149 148 143
1.59882 3.57875 7.82326 92 102 101
-1.13296 3.2604 7.24783 212 184 170
1.00711 4.05245 7.96291 138 147 122
0.774293 6.37487 8.04835 168 159 150
0.0254208 2.20951 7.96334 227 215 210
1.12647 5.93901 7.82549 152 155 137
1.62945 2.39195 7.94288 125 128 117
2.09336 3.38144 7.55579 80 89 87
0.190485 2.42284 7.97558 224 179 161
-1.14229 5.05573 7.68949 172 149 140
1.91991 3.55643 7.66931 141 122 114
0.881153 3.14124 7.94186 113 117 111
1.07059 5.60316 7.82481 179 159 158
1.39364 5.01241 7.65966 100 112 104
-1.09357 5.53955 7.67158 139 142 132
-1.09357 5.53955 7.67158 139 142 132
-1.65235 3.86535 6.93846 148 151 132
-1.1588 3.48101 7.30288 173 164 148
1.94883 2.51137 7.74567 141 127 120
-0.498132 2.46192 7.97209 159 137 131
-0.497536 2.46282 7.96726 148 125 120
-0.761133 5.82529 7.90999 149 146 138
-0.955828 4.71054 7.72729 128 133 127
1.56636 2.69555 7.82013 116 132 112
1.3265 5.45535 7.69014 146 140 131
1.14405 5.48967 7.68895 125 133 114
-1.41237 3.4464 7.08311 116 122 112
1.75059 3.36825 7.72485 99 111 108
2.31296 4.26212 7.59565 68 82 85
1.7733 3.09223 7.6949 91 100 95
1.7733 3.09223 7.6949 91 100 95
0.35663 5.75864 8.09201 198 185 183
0.54507 5.15548 8.05705 110 120 112
-1.09914 4.63631 7.57514 172 166 144
-0.990275 4.38747 7.78782 196 178 164
0.821535 3.66926 7.94761 121 132 112
0.554714 3.99311 8.00871 111 116 112
0.436984 2.07549 7.96503 228 207 196
0.436984 2.07549 7.96503 228 207 196
1.26936 5.40909 7.74981 89 87 97
1.9053 4.06111 7.69037 122 125 111
1.15609 5.00885 7.81034 125 131 112
-1.02992 5.10513 7.75964 190 170 159
2.07495 2.74814 7.60532 116 126 110
2.0743 2.74848 7.60335 109 119 103
-0.624544 2.3688 7.86208 150 129 123
-0.624351 2.36884 7.86167 147 126 120
1.88637 3.50479 7.67658 119 122 110
1.88637 3.50479 7.67658 119 122 110
-0.836134 3.83729 7.74202 151 142 139
2.2622 3.70444 7.5655 83 93 87
-1.49127 5.38255 7.45506 163 144 142
1.87626 4.62973 7.46161 101 111 97
1.49206 6.0882 7.66622 146 142 137
1.77668 2.22869 7.8514 143 156 131
-0.821934 3.72731 7.8207 241 221 206
0.529062 3.30748 7.99311 124 132 124
1.43292 2.47021 7.99627 207 203 203
0.889513 5.78389 7.952 183 164 148
-1.40783 3.99033 7.19971 120 124 114
-1.40783 3.99033 7.19971 120 124 114
-1.172 3.7037 7.39031 144 132 123
0.669031 5.53119 8.01521 151 138 129
0.669031 5.53119 8.01521 151 138 129
1.22863 3.83353 7.89964 103 111 101
-0.731135 5.11707 8.06278 176 144 136
1.86025 3.04054 7.65408 76 87 89
2.04888 3.38725 7.58563 86 93 91
2.42136 3.84477 7.50993 107 123 100
1.75431 5.41914 7.49776 115 122 110
-0.342063 2.37536 7.97405 152 150 149
-0.653884 3.39405 7.94444 150 127 125
-1.1149 3.04024 7.25637 169 150 142
0.922048 4.11777 7.95548 85 98 101
0.92839 4.90056 7.8799 166 140 131
0.746539 5.77447 7.9657 144 148 135
1.29826 5.85858 7.7635 159 154 144
-1.15529 3.23824 7.22313 214 186 171
-1.15529 3.23824 7.22313 214 186 171
1.5819 4.98675 7.53688 84 90 95
1.01482 2.913 7.95159 135 140 124
1.01482 2.913 7.95159 135 140 124
-1.00834 3.96589 7.51611 133 136 124
1.1617 6.04044 7.82374 174 167 157
2.03193 3.31087 7.5779 92 108 98
2.03193 3.31087 7.5779 92 108 98
0.658045 5.19436 8.02032 151 159 144
2.20391 3.4705 7.53425 73 85 83
0.992505 4.75444 7.8444 155 146 137
0.992505 4.75444 7.8444 155 146 137
2.26495 3.04971 7.46182 117 135 110
1.57057 5.22491 7.55473 76 88 93
-0.786534 5.07218 7.99911 232 213 201
2.54604 3.94552 7.49612 103 109 102
1.796 5.19546 7.47602 76 89 91
-1.13065 5.04009 7.69893 221 205 196
1.13719 2.9966 7.89463 109 121 113
1.13783 2.99559 7.90041 105 115 109
0.535933 3.83881 8.03011 167 167 163
1.71682 4.24847 7.74897 103 115 98
-1.17898 3.36494 7.25022 145 138 127
-1.57827 3.57564 7.02172 155 149 137
-0.370635 2.27029 7.96442 165 149 136
-0.370098 2.27011 7.96475 179 162 149
0.491828 2.06367 7.9637 200 184 180
2.19087 5.22997 7.34675 113 122 107
1.12701 4.46263 7.79653 144 141 123
0.999672 4.3436 7.84327 97 104 99
1.61183 4.41795 7.6951 87 101 97
2.14819 4.83624 7.38778 86 94 88
1.78158 3.34884 7.7175 96 103 103
1.62317 2.36659 7.93677 79 92 96
2.15211 4.96597 7.37969 71 80 89
0.494263 3.79908 8.03426 110 121 114
2.11935 3.4698 7.56388 103 112 101
0.510377 3.1478 8.00964 131 135 123
0.51048 3.14743 8.01178 147 150 138
-1.17999 3.33806 7.24572 191 169 155
2.33305 4.51498 7.5123 129 119 106
2.15484 5.31567 7.33423 113 121 110
1.8245 5.80666 7.49729 147 140 136
0.495023 5.70858 8.04947 144 148 130
2.40608 3.5579 7.52422 93 104 99
-1.17479 3.44145 7.2799 153 146 135
-0.389396 2.29967 7.97497 172 157 144
-0.388794 2.29923 7.9754 157 141 128
1.4769 4.91815 7.58648 120 129 108
-1.22433 3.37158 7.22179 178 166 151
2.2362 3.49297 7.53002 78 85 90
0.671227 6.39486 8.07738 124 120 123
1.58769 3.95601 7.77382 141 131 116
1.58756 3.95602 7.774 135 127 112
1.17681 4.66822 7.75834 145 132 118
1.17681 4.66822 7.75834 145 132 118
2.48666 4.58419 7.4143 110 114 101
1.15572 3.24293 7.89975 133 132 120
-0.642145 2.75096 7.94339 168 143 136
1.26179 5.43031 7.75288 117 126 116
-1.36235 3.32041 7.07867 159 154 138
-1.0113 3.71878 7.59143 176 148 141
0.567145 5.93531 8.01469 163 159 147
1.47369 4.15145 7.79438 84 93 92
-0.533064 5.54629 8.09002 174 171 168
1.38943 5.23152 7.69907 87 90 92
1.15382 4.22784 7.87152 89 95 93
0.032814 6.37996 8.10956 226 209 198
-0.969258 5.10391 7.81795 192 163 153
1.00045 6.03959 7.85252 158 154 148
0.827721 3.28382 7.92933 106 112 105
-1.24473 3.96475 7.33779 113 123 114
-1.24528 3.96482 7.33743 130 140 128
-0.536417 2.32485 7.90345 114 121 110
0.744251 6.47209 8.06561 198 171 159
-0.58365 2.59369 7.96716 164 139 131
0.948509 5.16264 7.80304 112 126 114
1.55451 5.59197 7.57838 149 149 137
0.537747 4.19252 7.99146 133 154 118
1.72554 2.66667 7.73846 114 120 116
-0.54925 2.30398 7.89456 104 110 106
0.491519 5.88464 8.10446 170 162 155
-1.10126 5.09187 7.72398 156 155 140
-1.10126 5.09187 7.72398 156 155 140
1.80781 4.31201 7.70676 142 117 107
-1.15371 4.01832 7.42315 187 168 154
-1.15371 4.01832 7.42315 187 168 154
1.57877 3.18083 7.76062 123 130 113
2.10286 3.10431 7.5555 71 84 84
2.10385 3.10395 7.55895 76 89 89
0.562944 5.16721 8.04081 140 140 125
-1.16178 3.75133 7.37289 207 182 166
-1.16179 3.75124 7.37329 211 187 170
2.00244 5.26113 7.30009 109 116 111
2.10221 4.72313 7.42052 79 86 89
-1.09171 3.94075 7.4434 159 161 145
2.20767 4.92034 7.36004 104 119 105
1.35324 3.54583 7.87686 107 115 109
0.569213 3.8889 8.03777 123 136 125
0.569156 3.889 8.03554 109 121 113
-0.368311 2.11855 7.89342 107 114 112
-1.25109 4.3367 7.48449 154 140 133
-1.25109 4.3367 7.48449 154 140 133
0.412552 3.55815 8.01933 129 133 125
0.97116 4.57419 7.86372 103 116 106
-0.749403 5.12672 8.05601 224 201 187
-0.666006 2.59399 7.89019 165 145 139
0.254517 2.18121 7.96744 177 163 158
-1.18192 3.08489 7.17749 193 165 152
0.931551 2.8489 7.99934 108 117 111
0.787404 6.28427 8.00925 191 170 158
1.40626 6.06663 7.69797 164 150 141
2.00135 4.73803 7.47893 121 121 110
1.3549 6.15154 7.73389 185 162 153
1.29785 5.32798 7.75677 111 119 111
1.77389 5.65086 7.44702 131 132 126
-1.56165 3.62739 7.09488 199 178 168
-1.5615 3.6274 7.09469 205 183 173
-0.874901 3.10374 7.58442 162 140 139
0.23271 6.27374 8.11047 228 203 189
0.711118 6.36843 8.0026 181 166 159
-0.66789 5.89365 8.01939 145 141 133
-0.576954 2.28578 7.8729 126 130 121
-1.34626 5.58387 7.45278 126 128 124
1.76469 4.3227 7.71782 133 124 107
0.997853 3.09256 7.92595 125 140 117
0.754325 6.28773 8.02272 191 172 160
0.754325 6.28773 8.02272 191 172 160
1.56337 4.66089 7.58637 159 125 114
1.07279 2.89349 7.92574 78 86 92
1.07348 2.89253 7.93286 82 90 98
1.32374 4.50572 7.72769 110 123 107
1.86836 2.57371 7.76106 122 122 106
1.67994 5.63463 7.55388 164 145 142
1.48106 3.47317 7.8401 144 148 125
1.75514 4.14248 7.75447 119 130 111
0.473876 3.26028 8.00952 132 135 131
0.528242 6.29586 8.12175 179 174 170
0.528242 6.29586 8.12175 179 174 170
0.887294 6.39573 7.98917 190 164 157
0.887294 6.39573 7.98917 190 164 157
1.7538 2.30828 7.84926 128 142 121
1.5463 3.48034 7.7923 134 150 118
0.596608 5.72186 8.00851 167 168 138
-1.16654 3.35447 7.25943 183 170 153
-1.16614 3.35484 7.25675 193 181 163
1.73123 4.40145 7.66417 129 143 113
0.988831 6.34984 7.9329 186 167 156
-0.940856 5.10457 7.83519 184 156 147
-0.820581 4.36827 7.93075 203 184 170
1.09883 5.21046 7.82506 102 111 103
1.09888 5.21053 7.82566 112 120 110
-1.05738 3.76665 7.47658 144 148 132
2.18522 4.85954 7.38003 83 89 89
-1.14856 3.49435 7.31227 142 142 125
1.79805 2.51674 7.80693 91 96 100
1.79805 2.51674 7.80693 91 96 100
1.39101 3.49412 7.88024 110 126 104
-0.865466 4.27731 7.85607 177 175 161
-0.908506 5.49863 7.85324 147 149 137
1.6178 4.44025 7.67229 117 135 110
1.81943 4.54472 7.56643 133 126 109
-1.38562 3.91282 7.20784 116 122 113
0.179279 2.20603 7.97205 233 210 197
0.179279 2.20603 7.97205 233 210 197
-1.48605 3.86808 7.06358 156 154 140
2.22319 3.11397 7.49089 116 131 106
2.50398 4.22714 7.53289 64 77 79
0.781236 4.30194 7.89581 155 134 121
2.30598 3.59837 7.5347 62 73 78
0.856611 3.32907 7.90715 111 123 114
-1.59024 3.7138 7.01462 153 151 136
1.13243 3.02517 7.90204 106 115 106
-0.699892 5.19949 8.07088 146 144 140
-1.47558 5.37612 7.46999 227 210 203
-0.686735 5.97527 7.99236 169 150 143
0.788316 5.78976 7.93446 146 152 137
1.47078 4.66527 7.56782 101 111 96
1.47078 4.66527 7.56782 101 111 96
1.73783 3.42182 7.73193 110 118 105
1.73783 3.42182 7.73193 110 118 105
1.56971 5.54526 7.56451 143 140 134
1.56971 5.54526 7.56451 143 140 134
1.06468 3.70837 7.92739 121 135 110
1.82019 3.27811 7.69636 122 114 107
1.76511 3.32887 7.72918 86 89 91
-1.56507 3.95489 7.0505 177 173 157
-0.727652 2.39848 7.77707 172 151 145
1.22563 5.22398 7.76438 183 152 137
-0.874547 2.49408 7.37225 165 137 132
1.58943 3.41557 7.81299 127 139 115
-1.19531 3.42203 7.26396 137 136 123
-0.927953 5.51135 7.81264 145 146 137
2.54534 4.57713 7.41971 99 104 97
-1.46884 3.4006 7.01601 141 144 125
-0.793598 4.85857 7.92057 181 169 154
1.12624 6.29687 7.87651 166 153 143
2.19199 4.0922 7.60161 83 96 92
2.19199 4.0922 7.60161 83 96 92
2.29874 3.11371 7.45929 120 139 111
2.44204 4.49571 7.47832 70 80 85
2.41525 4.47788 7.42731 97 109 103
2.05136 5.46556 7.35101 121 129 114
-1.22337 2.82331 7.06999 134 135 121
-1.2459 4.19737 7.4344 159 146 139
-1.0567 4.1962 7.50395 133 137 128
-1.25417 4.60462 7.47958 192 177 159
1.2316 4.0466 7.89605 103 111 101
1.45498 3.52034 7.85537 135 134 117
-0.775132 3.69747 7.84173 172 153 147
-0.53043 2.05683 7.81565 182 159 149
0.344834 4.75668 8.06423 154 152 134
1.8152 2.77679 7.67506 98 105 98
0.365932 4.79811 8.06356 150 159 133
0.101224 2.28533 7.97104 216 192 182
2.31507 5.14282 7.32246 96 101 100
1.69389 5.34703 7.51704 117 126 114
1.20765 4.14006 7.8839 108 113 107
0.978148 6.06783 7.92035 174 155 150
-1.01218 4.59101 7.68192 140 147 133
-0.499099 2.19712 7.85894 116 123 111
1.50062 5.60562 7.64757 135 133 126
1.98388 5.41516 7.37491 121 115 113
1.88132 5.38585 7.43491 122 127 116
0.586964 4.11586 8.04402 213 211 204
0.586668 4.11586 8.04494 194 192 185
0.197899 2.51173 7.97493 229 203 193
2.0346 2.62948 7.65327 79 87 92
-1.19612 3.66207 7.35856 162 142 134
2.32367 5.01358 7.32628 110 119 108
0.45568 4.93646 8.06234 173 163 149
-0.87021 2.55891 7.35983 126 126 119
1.5622 5.48267 7.64104 162 151 148
2.1253 4.13414 7.63563 124 123 109
-0.0367571 2.16987 7.96928 152 135 127
0.847445 5.94218 7.89609 149 147 141
0.496986 5.33854 8.08374 119 127 120
1.36894 3.83367 7.86047 145 133 123
1.36847 3.83375 7.85758 139 128 119
1.99446 4.38974 7.60198 107 121 107
1.2671 3.27497 7.8771 196 173 162
1.21532 2.9555 7.86918 107 119 111
1.75297 3.31497 7.72589 116 116 106
1.44373 4.86495 7.60324 126 123 112
0.51374 6.35801 8.11617 148 146 142
1.11934 3.60511 7.91667 97 111 101
1.11934 3.60511 7.91667 97 111 101
1.13018 5.37476 7.78946 101 104 101
1.47173 3.77531 7.83782 132 140 114
-0.134148 2.83098 7.97344 239 198 181
-0.135163 2.83082 7.97533 235 193 175
1.39679 3.8124 7.85496 119 116 110
2.3064 3.54082 7.53486 101 106 102
0.248596 2.2109 7.96961 230 193 174
1.10763 5.60728 7.84156 106 106 110
-0.859247 4.98658 7.93119 166 134 129
1.44949 3.75367 7.8447 104 113 105
1.44873 3.75411 7.83883 97 106 99
1.44949 3.75367 7.8447 104 113 105
-1.21046 5.76127 7.57562 162 143 141
0.331254 4.77284 8.05584 113 124 112
-0.335221 2.22305 7.96497 173 154 140
0.374914 4.57777 8.07258 136 144 132
1.98474 3.49969 7.62494 103 108 100
-1.61431 4.30693 7.11858 174 156 146
1.39881 2.89606 7.81813 88 99 97
1.39716 2.89822 7.80672 91 103 101
1.10368 5.5207 7.71908 128 137 124
0.216071 2.15512 7.96417 191 172 165
0.21647 2.15658 7.95645 195 176 170
1.21818 6.23058 7.81054 176 160 150
1.1555 3.04399 7.89788 105 118 109
1.15532 3.04396 7.89819 111 124 115
1.62847 2.55975 7.85918 131 126 116
1.14388 5.13941 7.80052 130 131 117
-1.14066 3.35469 7.26979 192 174 160
-1.14066 3.35469 7.26979 192 174 160
1.43262 3.75102 7.84695 131 123 112
1.43262 3.75102 7.84695 131 123 112
2.25817 4.41876 7.56376 75 77 82
1.69176 5.63275 7.52926 95 92 101
-0.789607 5.11403 8.02405 182 155 145
1.42642 4.70808 7.61626 181 151 133
1.20371 3.0439 7.90023 113 126 114
1.84291 4.52848 7.57778 90 101 96
2.28003 3.31677 7.48665 115 131 108
2.28003 3.31677 7.48665 115 131 108
2.497 4.76071 7.30803 113 123 105
1.81559 2.57474 7.78558 132 140 119
-1.01257 3.89885 7.52209 205 187 174
-0.829364 5.43656 7.89933 176 152 142
1.03765 5.48497 7.78752 104 116 110
2.14121 3.35478 7.54292 86 100 96
1.51218 4.68447 7.59729 173 142 127
-1.36368 3.74042 7.20654 115 123 112
-0.69509 2.64411 7.8765 172 148 139
-0.598594 2.11137 7.81043 168 145 138
2.24792 4.83315 7.35764 95 90 96
1.89557 5.1611 7.42428 80 88 88
1.89711 5.16167 7.4295 87 95 95
-0.837018 3.86521 7.7478 142 132 129
0.586809 5.91149 8.01145 151 152 141
-1.34377 3.63889 7.24165 164 146 138
1.78599 4.45688 7.63673 95 108 101
-0.391982 6.13784 8.09368 210 191 184
-0.391982 6.13784 8.09368 210 191 184
1.1818 3.34208 7.89753 97 108 105
1.97482 5.1117 7.38435 140 141 130
1.97482 5.1117 7.38435 140 141 130
1.54249 4.63793 7.60057 156 134 120
-1.20027 3.53551 7.29155 162 151 141
-1.20027 3.53551 7.29155 162 151 141
0.157574 2.48154 7.96727 217 190 177
1.40367 4.47553 7.68222 121 113 112
0.726535 5.907 8.02608 150 147 138
1.77311 5.41459 7.50897 88 95 97
-0.117682 2.89919 7.97891 235 190 170
-0.117682 2.89919 7.97891 235 190 170
1.06451 3.16115 7.91511 123 123 116
1.01946 6.25938 7.91648 192 167 157
-1.00147 5.70011 7.7272 181 153 148
-1.36878 3.27094 7.05276 173 160 146
1.96919 3.50659 7.63311 146 131 121
-0.648258 2.50399 7.88406 169 140 134
-0.854437 3.49583 7.6911 187 169 162
1.94384 5.63348 7.41212 100 102 105
-0.933989 5.35342 7.86252 148 141 131
1.08416 5.2387 7.81071 113 122 114
0.465861 3.6206 8.03581 121 127 118
-1.07171 4.14237 7.50763 167 168 147
-1.15257 4.31823 7.54322 204 181 170
2.58839 3.69091 7.47069 73 82 86
-1.39953 3.76022 7.16604 133 141 125
-1.39953 3.76022 7.16604 133 141 125
1.84589 2.40713 7.83309 76 90 94
1.84321 4.87576 7.43928 107 118 104
0.926725 5.82177 7.90966 152 147 145
0.575137 4.03101 8.04199 132 134 128
1.31156 4.30809 7.74992 71 82 87
1.31156 4.30809 7.74992 71 82 87
0.917425 5.1403 7.81651 118 128 113
1.25437 4.51115 7.74272 101 114 104
0.480328 3.76676 8.03298 114 125 117
1.1634 5.87923 7.86221 164 156 143
1.61549 5.67109 7.5531 151 146 140
-1.63237 3.55458 6.97566 118 121 112
-0.803201 4.84466 7.93933 164 163 152
1.31192 5.89929 7.7637 148 146 138
-0.718712 4.0838 8.01594 165 154 148
1.73271 5.22409 7.49136 83 92 92
1.5278 5.21601 7.53482 84 95 96
-0.868297 4.14367 7.73272 141 130 126
1.67407 5.8768 7.55291 145 139 136
0.977874 4.25469 7.87318 202 180 162
-0.623171 2.16075 7.78764 164 143 134
-0.51185 6.41468 8.11817 177 150 146
0.842593 4.51727 7.89818 114 126 116
1.55527 4.61291 7.60579 105 115 106
-1.61332 3.76261 6.97242 145 147 132
0.791469 3.86877 7.97389 137 143 122
-0.805292 4.78255 7.89292 185 189 162
0.55391 3.11227 8.01156 134 139 131
1.29133 6.00049 7.74527 162 158 149
1.98828 5.62796 7.38549 80 90 92
-1.13236 3.68637 7.39943 210 188 177
1.64374 4.47689 7.66516 152 123 113
1.64374 4.47689 7.66516 152 123 113
1.37935 5.16416 7.69799 133 128 116
1.37935 5.16416 7.69799 133 128 116
1.77818 2.532 7.81594 103 117 107
-0.145229 2.27847 7.97059 217 195 183
0.921059 3.19891 7.93079 148 141 126
-1.24191 3.07968 7.13053 203 175 160
2.06022 2.76114 7.6143 87 106 100
-0.596234 2.70084 7.98231 182 154 145
-0.739079 2.10697 7.67085 176 156 145
-0.739079 2.10697 7.67085 176 156 145
1.85223 4.51305 7.58609 178 149 133
1.85223 4.51305 7.58609 178 149 133
1.40506 4.85395 7.62132 168 137 124
2.0764 3.8883 7.61192 129 134 116
2.0764 3.8883 7.61192 129 134 116
2.19567 4.40809 7.6046 126 111 101
1.70654 3.25579 7.73162 127 139 119
1.24984 3.42377 7.89672 113 126 114
0.547156 3.31514 8.01893 152 154 152
1.85413 3.26833 7.66503 109 120 110
1.29171 5.52769 7.75724 159 139 133
0.432777 6.46413 8.12412 220 201 193
1.45701 3.62446 7.85169 113 117 110
1.45867 3.62414 7.85892 97 102 96
-0.701728 2.1412 7.72467 130 119 113
0.517525 3.82931 8.03405 117 126 118
-0.47884 2.07968 7.83544 114 121 111
1.78215 5.80753 7.52251 132 129 129
0.957028 4.19964 7.89011 107 109 108
-0.972626 5.48061 7.78979 144 146 135
-0.972626 5.48061 7.78979 144 146 135
-0.972626 5.48061 7.78979 144 146 135
2.57313 4.49794 7.46346 156 126 119
0.789847 5.95068 8.02327 135 136 127
0.863044 3.20845 7.93018 114 129 117
-0.597763 2.26882 7.84534 128 131 120
1.55832 2.41158 7.94833 105 116 115
0.707764 5.91258 8.03246 176 173 158
1.15516 4.95923 7.81061 159 143 127
1.15516 4.95881 7.80599 146 131 117
1.73958 3.6473 7.77143 113 124 111
0.487143 3.8263 8.03143 120 128 121
0.487143 3.8263 8.03143 120 128 121
0.81753 4.39279 7.89464 120 129 120
1.04081 4.92714 7.8535 184 158 153
-0.37772 2.25383 7.96757 133 141 130
1.13578 5.65459 7.84036 168 160 144
-0.844752 2.62133 7.44619 145 123 123
-1.37579 3.31846 7.06411 128 125 114
0.152773 2.61386 7.9671 195 185 181
0.152773 2.61386 7.9671 195 185 181
